77.426758 -118.945084 255.904785 
-20.161390 -163.880188 96.598305 
5.006919 -162.416534 278.035675 
-26.130814 -180.638687 208.865585 
55.775375 -103.998413 92.087090 
-25.135605 -176.798874 201.568588 
48.692577 -111.406967 292.694519 
74.779823 -64.762703 44.814651 
-39.045830 -12.732232 69.724060 
94.941986 -58.741364 177.102081 
-40.838440 -154.118469 145.694366 
-12.485646 -3.643737 89.760818 
-21.933559 -172.597672 253.082672 
31.349491 -183.333511 236.458282 
79.939926 -128.265747 233.300797 
20.817579 -135.997818 70.445297 
-28.939005 -170.563156 193.390381 
73.827446 -155.055359 196.578934 
-55.213142 2.715294 20.464279 
-50.275089 -35.540863 66.870651 
88.315285 -66.194641 191.500717 
24.572872 -71.030190 304.169800 
-77.938530 -29.979530 24.563890 
-71.867897 -79.973824 193.088379 
76.635277 -87.281326 140.998276 
54.018440 -146.285904 88.393311 
79.506142 -118.886238 246.365952 
80.625061 -139.385284 172.036240 
-10.254242 -117.326973 68.863617 
17.713182 -205.973450 147.450439 
-72.483604 -75.933090 193.516220 
-61.645805 -88.835991 206.607254 
65.134041 -54.585278 98.265633 
-43.340565 -24.395224 77.291771 
41.561466 -15.284036 149.745270 
65.147156 -14.847928 224.184250 
-23.639519 -173.946487 194.636215 
16.770241 -54.616535 302.117950 
51.360867 17.424774 24.892904 
44.998089 -1.516902 239.651321 
-28.066648 -167.944626 177.797974 
-1.802477 -160.418762 72.183502 
51.810310 -4.492018 234.204529 
-49.055416 -8.379375 48.060410 
-12.097101 -23.663679 282.263794 
59.756638 -119.808060 92.246643 
45.875008 -179.738983 197.428848 
-63.681839 -82.647789 143.843399 
90.403145 -14.750982 26.778515 
-58.040394 -84.451210 165.104950 
-9.891891 5.540484 220.936203 
36.412323 -181.155594 123.447044 
79.689507 -83.779114 165.906250 
-45.517075 -155.411224 196.075073 
50.592785 -6.333161 246.545868 
81.042549 -75.934242 259.907562 
31.217413 -173.370804 194.094849 
51.351479 -179.851059 221.762192 
-57.996056 -49.686363 245.280121 
56.669014 -35.554348 279.953003 
-37.592678 -127.244781 92.958611 
65.955238 -100.576294 111.473976 
-47.726688 -133.779922 262.466309 
82.455788 -134.198044 195.064545 
27.309328 -184.041931 200.281906 
88.414024 -91.984650 185.432648 
29.460812 -192.519135 149.922195 
12.137076 -63.593197 303.877228 
-37.895195 -91.655296 47.071278 
0.949751 -201.166077 149.913239 
-63.653275 -4.893723 20.464279 
49.674843 -183.793579 212.804123 
-10.262818 0.932719 247.958954 
-2.027563 25.416847 20.464279 
58.583233 -92.256859 289.086151 
94.427200 -62.997784 163.815414 
14.119543 14.056334 52.370415 
-54.846561 -73.171257 35.823418 
-50.412910 -34.093590 250.451355 
6.635912 -193.527390 178.208862 
-55.438480 -69.146309 160.043228 
22.287724 -182.843842 192.171692 
15.197921 22.444366 34.625458 
27.980925 -9.024371 153.053772 
16.582960 5.597348 241.134338 
77.317673 -30.697004 232.611343 
38.681309 -40.979683 293.661804 
82.118073 -77.431320 165.264145 
96.930992 -62.767830 185.153732 
-66.849304 -74.376694 152.012955 
-8.263600 22.233232 32.930462 
13.281089 -209.329880 148.722931 
23.389778 -200.103439 148.692429 
-18.664469 -112.243683 74.099815 
-30.075020 -166.390610 189.005234 
40.657864 -166.757187 267.698456 
96.804604 -43.218582 26.195866 
-3.209784 -125.586555 69.704651 
37.192566 -12.921956 115.282196 
91.808220 -78.914879 185.037888 
-45.165562 -88.829582 20.464279 
-73.223282 -29.474380 32.133080 
94.288734 -73.182053 162.249664 
-19.074415 -172.051865 137.228760 
5.937379 -101.153580 303.128876 
-43.538754 -80.381554 105.057701 
69.521347 -70.916985 50.123661 
79.710556 -92.664467 139.435562 
43.861507 -46.058525 293.700195 
-25.620804 -16.482824 147.012344 
57.199478 -169.411911 182.440765 
-53.887192 -79.813324 27.747738 
28.260651 -97.129395 302.285858 
44.881107 -186.371307 207.382706 
-54.397018 -132.564713 215.877365 
-27.772579 -172.851242 195.165054 
-38.882515 -161.577316 173.887772 
-70.828819 -80.610802 188.934036 
-26.521034 -175.596268 233.305771 
33.980129 -181.243103 148.554733 
-15.401926 -185.702560 215.418381 
-43.111374 11.502022 20.464279 
61.284000 -143.878235 103.968033 
-38.068836 -74.041550 286.291107 
-50.824982 -58.563519 159.887970 
13.036413 -72.921547 304.671234 
-1.567591 -112.463654 40.888294 
29.321877 -7.695056 268.400970 
-24.247971 -87.345619 296.034698 
94.862091 -60.911221 166.606033 
-34.009731 -132.851990 89.169594 
47.665890 -151.052475 82.621666 
-18.072830 -83.401154 298.980133 
90.132034 -76.807678 153.591171 
-33.885971 -24.320723 118.863052 
66.306320 -18.108875 242.305984 
16.563732 -205.696228 164.770554 
70.876328 -62.383919 54.834114 
-38.165096 -120.389496 94.234039 
76.778923 -69.556122 269.857422 
-43.207840 -138.165787 267.960754 
7.306620 -175.472198 73.410477 
-9.060585 -16.995712 277.322784 
-62.021351 -83.570000 230.832336 
-53.291622 -23.405487 54.019524 
-56.097092 -121.664322 237.822952 
5.382041 -202.018356 165.168518 
48.985081 14.324897 33.698242 
97.895302 -40.422703 20.464279 
-11.219555 -151.825806 74.813828 
40.438278 -152.302887 77.054657 
-18.638891 -157.567810 80.513321 
-5.996676 -176.373459 85.058464 
66.629440 -156.208527 249.896698 
-35.821606 -63.152386 286.952728 
-62.562107 -90.165939 176.022400 
-11.584223 -35.502895 290.562256 
-67.415741 -87.616165 190.616531 
48.201706 -104.564346 80.288292 
-1.392434 -197.190018 150.095490 
81.278999 -2.871975 25.326021 
73.580650 -28.008995 48.350361 
0.075191 -17.297222 280.210815 
33.176746 -119.544205 297.380402 
-73.865860 -64.192719 188.258743 
21.673920 -193.190857 123.266594 
18.309025 -7.977060 139.527786 
7.423348 -187.950409 106.757469 
2.254860 -136.878601 71.214401 
-61.980370 -63.839352 34.384163 
-63.282822 -83.829079 194.803009 
37.513287 -177.707703 199.494873 
-16.747173 -170.977859 261.081665 
-63.594212 -66.113853 190.972794 
87.181778 -65.979401 200.381363 
67.859970 -65.227463 62.801121 
-6.223009 -174.315674 198.950623 
86.340637 -76.856003 143.848557 
15.165664 2.281472 81.417229 
-55.509403 -66.277420 259.632782 
44.926189 -123.868866 291.476196 
-15.452002 -171.989166 179.208542 
83.668663 -86.410072 171.680359 
50.576283 -150.067337 85.649902 
-17.065842 20.956482 31.197891 
56.049137 -112.204636 287.762634 
61.855042 -149.106949 119.643250 
-43.317223 -91.351273 114.122910 
61.041927 -100.975578 101.300514 
69.138931 -109.315178 110.423820 
-40.323761 -130.818024 100.428398 
86.401306 -32.330486 36.261902 
4.337492 -206.253235 152.139618 
49.820393 -116.911652 83.875725 
1.391417 -173.600037 193.990112 
90.560089 -60.134613 23.287718 
82.536064 -86.141861 154.300430 
-54.446339 -117.076614 148.335236 
-32.542393 -7.484547 236.778412 
-9.432041 -177.083252 201.139267 
-31.322166 -101.962975 290.757050 
8.045713 -186.363754 194.455582 
-3.295938 -165.937073 273.384277 
63.657539 -4.659110 42.655346 
-21.793327 -176.224060 242.198868 
-0.859765 -172.002289 189.193619 
57.464439 -166.349884 251.380783 
-71.717339 -69.130600 181.481262 
38.814903 -105.965431 39.333282 
44.604458 -173.972977 176.523621 
-53.148628 -138.752777 192.085556 
-55.276337 -72.079941 155.809128 
-47.270386 -59.199036 90.086121 
76.044266 -76.143654 150.081329 
88.342865 -80.824844 152.650513 
-55.895355 -88.737755 141.142624 
-42.608940 -119.323082 101.006203 
-34.408470 -143.703308 98.866089 
42.066429 -126.402054 77.604103 
82.953865 -58.990551 177.448776 
51.916458 -166.487320 258.500824 
83.812172 -89.566032 152.331924 
39.034153 -111.887001 70.254280 
-24.352190 -103.517807 37.510292 
45.160221 -2.408281 62.478325 
-27.459562 -177.067673 223.000092 
-52.992599 -2.701867 37.108173 
-4.125183 -184.048508 144.740494 
93.825752 -22.305717 27.906660 
19.510975 -185.549118 101.607224 
-43.438034 -155.885910 185.223907 
69.352180 -59.316776 141.348251 
-30.046587 -101.042603 82.689842 
-7.765290 -9.245945 144.473099 
67.028625 -161.661880 160.909668 
23.753054 -184.396271 177.852814 
64.797119 -81.089020 44.975712 
5.012364 -3.752525 166.666931 
-50.028580 -144.014832 236.761551 
56.147663 -69.661713 291.961273 
-21.704323 -0.272428 70.884888 
-12.418686 -176.588654 131.588150 
-11.327915 -172.300034 180.401199 
57.563988 -155.275360 119.621147 
74.500237 -51.973576 269.244507 
-38.000191 -19.046766 255.300781 
8.171604 -188.023758 189.892365 
39.769287 -153.428818 280.086700 
-47.191387 -57.333172 272.493896 
-15.222449 -172.202301 117.325714 
24.305391 -186.264267 227.591370 
12.980297 -209.579712 158.410110 
-61.515156 -81.407860 159.489471 
-64.036110 -83.467697 182.069595 
74.112999 -61.495670 273.137573 
-35.162621 -8.398312 229.527664 
47.064487 -173.613403 181.522995 
58.736969 -55.210796 287.642120 
26.698811 -179.972305 84.444435 
62.826843 -103.913757 103.142792 
10.957800 -180.788727 251.555023 
44.132614 -165.313522 92.753059 
9.392914 -209.025650 149.366852 
4.557462 17.219671 46.816143 
20.517523 7.098116 231.049408 
-9.428148 -182.135635 203.225479 
66.792992 -23.698179 190.725510 
-25.550741 -104.165627 76.851173 
-29.945843 -166.004593 145.023956 
-9.428389 3.791036 238.086899 
79.969109 -79.293716 163.155716 
72.938141 -57.284691 156.872726 
-30.272354 -7.129320 199.392746 
50.449085 -174.385178 186.362335 
-41.260452 -159.750519 170.069809 
53.102318 -160.812790 119.842567 
-60.818512 -65.173584 244.649521 
-48.843086 -40.326145 73.737915 
42.956337 -101.622437 297.373291 
-18.912325 16.194326 39.704422 
-40.398113 -87.421829 55.175884 
96.785530 -71.472549 191.340698 
32.650730 -173.828796 184.324875 
62.477982 -47.364532 281.633698 
38.842087 1.921946 214.084885 
-48.846882 -74.329407 144.230835 
-47.939892 -50.459061 268.614990 
-12.751212 -109.278763 53.245838 
85.133293 -42.721371 37.695545 
-0.829554 -4.964608 164.175064 
59.992229 -168.995926 240.485947 
65.104225 -156.552368 143.778030 
62.293076 -170.866211 198.164780 
-49.731640 -29.313641 192.823380 
14.320456 -200.629059 174.732712 
-2.276533 -170.213562 73.878548 
65.021042 -91.364479 284.008820 
-28.512493 -46.062477 287.309509 
35.378735 -168.148575 268.694275 
89.877495 -76.621841 150.659180 
-51.447292 -54.747860 62.684891 
80.512245 -140.683136 198.007385 
-72.218872 -14.150060 22.488819 
90.257423 -78.746307 194.749115 
-60.701603 -51.439617 235.253540 
47.825180 -21.032789 274.330597 
-65.740974 -58.098156 166.909988 
-46.645248 -55.192673 144.470444 
-21.762371 -157.053558 85.409752 
46.980103 -16.810671 159.767212 
14.405961 26.490067 20.464279 
52.273216 -20.251003 82.316360 
12.497305 -199.264053 143.601471 
-52.727253 -97.485153 266.844757 
33.359005 -184.546478 203.244781 
-42.594967 -8.253136 56.695690 
-58.142605 -39.767342 222.491974 
42.205448 -182.157639 203.001938 
-52.279823 -109.731209 264.724182 
-46.206169 -110.437859 111.143837 
-25.242611 -111.210693 81.709282 
53.285702 -24.860273 91.729111 
30.939188 -138.305603 291.741547 
85.976013 -66.499420 237.961517 
-13.415245 -159.796631 76.735260 
95.481544 -73.417046 174.149857 
63.632313 -18.672335 194.704422 
24.379850 -179.632416 187.033936 
19.558487 -121.674530 60.674141 
-0.066199 -1.242347 259.376251 
-73.867996 -62.657688 184.989258 
80.120834 -83.555946 158.090485 
85.187874 -117.313835 181.540146 
-7.849746 -178.240448 108.454521 
43.449017 -116.070122 77.764839 
13.234655 2.521700 252.072586 
-28.181812 -11.414173 90.659576 
6.520809 -186.045670 103.696625 
-58.776745 -96.423279 158.375336 
79.630562 -136.530487 163.373688 
-33.947094 -173.800964 212.030151 
-2.305833 -42.465897 296.433044 
70.900482 -66.738609 144.547668 
94.404213 -71.039368 160.749939 
-6.452916 -129.655884 72.617081 
-34.190636 -52.663620 285.575470 
-21.732788 -176.383148 197.121170 
-38.292793 -89.898727 73.490540 
-30.145952 -134.933792 85.457550 
48.334099 -111.598129 82.605789 
-72.146103 -69.872574 193.524826 
-50.270737 -146.609436 194.897308 
43.035366 -186.937836 212.244843 
87.612610 -81.099693 182.604614 
63.850994 -89.360512 29.250694 
-8.696515 -171.964020 190.843689 
86.567047 -82.136734 141.860703 
58.781708 -16.444145 256.004028 
68.634499 -137.149155 264.595856 
-18.588806 -125.350456 77.833031 
45.270809 -167.825272 113.019989 
42.870476 -113.993591 295.186951 
22.677418 -188.616394 143.752747 
-59.834064 -102.556610 199.399673 
21.248232 6.923969 207.479889 
-33.176876 -153.717926 119.848289 
22.162699 -193.105515 128.216675 
-38.117371 -24.960520 163.670105 
12.222911 -181.479874 78.826965 
-43.991844 0.441476 43.000587 
-44.741711 -147.198029 144.274490 
0.887456 6.900633 234.175095 
84.554955 -92.629974 167.143768 
68.566010 -159.903214 185.011688 
62.833618 -43.717152 125.270653 
81.873177 -93.829681 152.742920 
88.594734 -75.803719 197.652130 
-32.373962 -173.663361 219.804474 
70.754448 -92.864052 277.784424 
-47.134129 -42.456631 82.673561 
69.528915 -54.161167 61.088383 
-70.880310 -64.279549 173.699036 
-38.906063 -27.246296 100.754890 
-50.520317 -69.541176 51.414944 
-69.779083 -75.473465 160.791183 
68.975449 -160.312042 176.667099 
86.141136 -95.046715 187.198288 
94.282631 -74.999001 182.135468 
-61.498291 -93.261894 144.123474 
-73.317741 -71.111595 174.235703 
40.419132 -184.150955 224.112427 
-25.928419 -162.359741 264.970306 
60.250927 12.587597 24.692461 
-52.542702 -56.099232 262.692474 
33.165283 -160.544205 74.033119 
18.259745 -28.315853 290.369476 
20.180155 8.048028 222.711563 
-19.930586 -12.995441 122.723427 
-67.723152 -57.383183 171.164764 
75.875374 -33.973179 47.521069 
-50.582279 -48.096268 167.210419 
83.906807 -84.537918 243.972534 
11.443864 -194.675095 122.617134 
18.859127 -188.149582 106.203270 
74.939514 -152.191406 212.288330 
78.654472 -53.513535 43.575100 
-18.341661 6.264437 59.545197 
-73.345337 -35.115276 32.353683 
-60.715637 -90.897888 164.238739 
32.241982 -171.614044 77.063751 
41.644135 -1.649512 200.683044 
24.716852 -142.764862 72.011185 
40.436649 -84.948532 300.039154 
-67.663139 -88.941544 186.997955 
-35.862488 14.874262 27.578947 
85.842224 -57.950100 236.267990 
-45.963688 -67.744797 121.423653 
-40.371468 -32.495667 107.700333 
1.108836 -189.889816 145.550339 
-44.588383 -127.245041 111.736992 
59.196629 -84.809746 59.869274 
46.761044 9.776268 41.528469 
28.284370 -7.910096 110.775543 
76.042572 -3.051651 31.246014 
-5.537245 -29.012003 288.367126 
-39.100494 -16.630917 190.653091 
40.410831 -16.095081 128.346375 
-5.300186 -112.465469 49.897419 
-39.124989 -4.269997 55.964123 
18.209604 -100.240433 303.062256 
-4.458703 -171.093369 188.442856 
95.981369 -69.596100 182.418274 
82.887825 -104.558975 236.435226 
76.033211 -72.021446 153.423264 
-48.619564 -149.173630 188.987442 
28.399536 -10.360028 136.599091 
45.254051 -166.851898 264.209076 
-72.503395 -71.228104 168.481033 
-9.321002 -174.042786 194.987366 
65.760727 -88.920349 20.464279 
-31.620604 -174.844330 204.020065 
29.361816 -131.605072 71.540367 
-50.317181 -144.979340 229.304169 
-11.255454 7.865875 61.554977 
-46.327461 -34.205524 172.484894 
-23.722231 -159.313370 270.190582 
-57.046749 -47.180485 190.146057 
6.244530 -195.290726 147.852951 
-32.555145 -69.391045 290.456879 
3.447423 -150.054398 287.541626 
56.775349 -32.901882 108.402672 
25.134247 -176.494812 192.734467 
-56.731323 -47.265495 51.622169 
-32.052486 -97.165771 58.143169 
29.487516 -184.270905 142.929688 
67.068283 -76.274536 48.222672 
-28.771887 -8.470734 189.643921 
94.948471 -19.880798 20.464279 
-37.430771 -158.888794 186.463669 
13.347729 7.753541 205.794266 
70.396973 -127.351044 267.760254 
-43.303871 -42.699024 113.686760 
85.102417 -89.987762 162.834290 
76.989563 -149.827896 184.084457 
-35.652496 -95.572830 90.649826 
43.269611 -167.159363 98.163963 
-32.997261 -164.551361 251.780762 
-37.131413 -105.855072 285.733429 
44.347466 -6.343146 188.097809 
24.235916 -187.713516 141.761826 
-48.761299 -24.488613 202.489868 
84.702789 -100.494125 174.803375 
96.275551 -77.275375 192.609528 
96.438705 -70.396599 167.008667 
76.321877 -127.001114 141.292404 
64.253792 -75.499397 71.521736 
6.521950 10.316912 61.273895 
10.241562 -199.762878 175.492874 
4.408891 -143.025726 291.700500 
-40.681553 -31.119923 158.043533 
89.618881 -10.774577 22.342497 
87.801399 -9.280087 24.519121 
-55.436516 -78.666901 20.464279 
-61.348824 -60.819450 179.539459 
-62.692204 -74.588089 201.610825 
79.842834 -96.657219 144.924057 
-35.505619 -8.292690 221.878738 
-66.601013 -78.289139 169.720078 
79.019089 -103.954002 258.813751 
-54.214134 -43.588413 251.153214 
22.199770 -6.710313 268.954620 
-58.230511 -41.524063 231.336166 
61.138252 -38.186638 140.421814 
5.184733 -32.383583 292.406799 
52.758305 -171.692444 180.284943 
27.740395 -31.556969 291.558350 
67.520943 -113.370499 104.717087 
33.066677 -22.177736 283.312256 
-53.530392 -91.375755 139.530807 
78.712753 -52.007687 177.498535 
80.010757 -41.994289 248.015579 
55.476563 -7.750173 239.555801 
-35.989998 -164.946350 167.292358 
86.783707 -83.575050 183.057236 
39.067005 -174.873688 115.885696 
3.028047 -176.140305 187.699570 
-13.514583 -8.467953 109.900032 
-48.451458 -145.890671 158.188705 
-47.486034 -33.335442 73.853668 
66.056473 -165.966675 228.353058 
82.194244 -72.073204 20.464279 
17.114594 -189.533112 214.116547 
-67.933235 -88.492767 188.835236 
47.840900 -185.351273 209.425247 
-38.085205 -162.696060 162.311081 
75.075577 -43.655121 262.943481 
60.342228 -36.014080 84.598282 
89.648880 -62.947273 157.152908 
15.612115 -187.684326 196.038162 
97.576881 -63.297806 182.019608 
21.083242 -189.979584 210.717514 
52.829567 -146.479172 276.427979 
-7.625713 -181.684708 241.284119 
19.745289 -184.130295 93.170639 
75.221977 -37.041645 189.166199 
-67.591675 -87.418053 185.249420 
7.568732 -58.376026 302.737976 
64.257477 -117.199837 98.074287 
-55.143169 -105.635536 145.239777 
-61.703323 -93.747993 188.879166 
84.326576 -110.228920 174.044464 
-57.197311 -37.944534 210.310852 
-44.082058 -23.929693 251.183929 
64.216980 -49.901428 85.730797 
15.678703 -195.413055 125.831642 
89.882027 -74.373573 149.286270 
17.566900 -187.747009 193.537842 
46.320377 -128.511078 80.466515 
-20.287285 -10.104859 103.928505 
94.651482 -75.054642 184.859192 
-40.232841 -162.445343 196.390503 
56.111984 -10.495114 247.503662 
-62.526424 -60.327415 205.563049 
63.182686 -76.481163 286.657379 
29.497103 -61.930092 302.640533 
26.636366 4.741813 68.475937 
-3.303254 -110.875404 300.798065 
63.511024 -171.942368 204.812439 
58.069401 -141.253662 91.941406 
4.885583 -192.307632 133.530914 
-71.474854 -60.990810 171.020569 
85.876976 -86.383240 142.215088 
-25.084866 -149.574600 84.321777 
5.761837 -184.629990 189.308548 
21.367975 -177.365509 74.857933 
-52.599689 -97.106201 135.590271 
-55.434525 -66.757622 163.632416 
-3.061964 7.444278 214.303085 
53.577579 -163.609467 129.193161 
25.279108 -159.267395 71.665298 
-34.690338 -126.697487 89.627602 
21.149294 -132.130005 296.285461 
-44.767078 -76.285248 111.363632 
58.008480 -87.065987 52.506752 
41.455250 -104.890915 30.593264 
-7.192380 -170.297806 76.823235 
81.909485 -138.078186 182.875000 
1.826284 -183.070511 99.205162 
92.133110 -77.250107 182.217560 
-71.313232 -75.477486 167.291046 
-43.102028 -44.153679 134.770584 
-42.422478 -82.948143 99.093948 
48.108345 -168.703140 127.719696 
88.270248 -60.830719 163.037506 
77.289772 -124.267990 252.372162 
14.810790 -185.923157 101.261703 
1.462549 -125.502800 67.589989 
-29.923374 -56.529774 290.061737 
64.066147 -79.248566 95.989410 
30.237741 10.236166 53.551147 
-56.521229 -121.611908 210.923752 
-6.140202 -178.059006 172.240601 
15.828313 -182.702621 244.624298 
-0.688178 -188.980591 160.918625 
1.946555 -191.226318 126.270218 
-21.918591 -133.254318 288.581940 
92.628891 -58.734814 177.844147 
23.119478 -5.943866 162.847168 
62.098541 -15.001999 246.009476 
-46.310036 -62.744534 108.993217 
3.713453 -115.545395 47.471859 
15.345692 -175.503250 72.995270 
-26.814451 -2.148693 69.034775 
80.178596 -67.563950 160.752457 
-52.355160 -115.475395 135.554382 
57.185997 -127.620499 282.415100 
-42.458076 -27.949482 86.224075 
80.773827 -79.063950 167.159775 
-60.749043 -91.680321 240.852997 
28.793367 -186.897675 145.423615 
77.842262 -44.183781 257.235626 
20.224163 -186.195786 194.068588 
-67.673180 -59.650837 164.218063 
-14.746208 -107.997658 39.892036 
3.304719 -184.328629 197.539566 
66.566185 -146.507156 131.165115 
79.759094 -138.871811 213.176819 
45.720882 -173.101532 140.728867 
-55.875938 2.000059 27.284979 
92.458107 -76.097290 175.727661 
-26.542171 -125.694336 288.675812 
-62.593006 -68.881111 28.878267 
48.626884 -169.555817 133.762787 
-43.661503 -27.352743 177.441330 
17.097569 -191.702759 110.397697 
-58.879219 -52.792858 45.500027 
-33.056248 -0.330689 57.070259 
49.153725 -175.835876 242.431580 
70.371994 -57.522186 148.208969 
-39.169453 -158.911163 248.915344 
-55.570869 -77.266434 149.008774 
2.708601 -203.578781 154.891022 
-64.801010 -86.822563 153.784882 
27.035431 -188.340302 204.394287 
-12.176153 24.043047 23.971504 
22.733171 -11.193282 274.770538 
71.136505 -121.180649 112.922813 
46.616268 -20.902386 119.300911 
49.484131 -175.234283 190.804443 
-5.646703 -146.661346 288.000488 
3.983285 -190.389359 116.922188 
-33.224411 -166.881699 160.608185 
62.669968 -161.895142 249.563705 
-39.155449 -127.175552 278.379089 
94.685600 -66.725380 190.053223 
-59.577377 -83.855873 159.105133 
69.225914 -53.098801 277.078949 
-25.777716 -107.118454 80.371605 
20.934143 -199.494324 147.937607 
37.917480 -140.300369 288.255890 
16.223080 -125.428436 64.972923 
53.435581 -98.853981 20.464279 
62.565723 -91.634743 23.739351 
83.172295 -70.466660 24.000839 
53.319843 -28.668861 123.189552 
78.190887 -66.642342 160.783981 
74.414940 -132.163818 138.741928 
-11.204261 -6.699818 263.516632 
37.101307 -52.657043 298.909912 
3.003669 3.934006 190.674362 
51.573326 -60.055569 293.771545 
-27.643244 16.924015 31.837891 
81.585312 -48.224178 192.265411 
7.251836 -7.051918 128.227768 
49.023327 -177.554642 195.122040 
81.595398 -130.214294 164.806396 
4.333436 -181.685074 193.138535 
33.731491 -9.365272 161.610809 
-35.644451 -9.149971 69.971802 
75.848007 -82.159966 145.023315 
-49.935547 -103.370483 124.978218 
90.498711 -60.045040 163.322983 
86.352013 -81.109360 180.275391 
-48.808372 -147.826859 169.015915 
82.762383 -25.761581 38.228222 
97.331451 -44.547119 22.494122 
72.522781 -116.137978 118.505974 
-9.270036 -178.683899 138.878754 
46.732857 -148.470901 80.974182 
23.346226 -183.736847 196.293060 
-31.331133 -170.009674 241.005447 
-1.057769 -7.111791 122.528717 
82.205009 -94.050964 156.987045 
-47.684208 -141.686340 253.906509 
-65.253929 -41.232517 40.421173 
-16.759220 -171.402512 119.394920 
45.737358 -120.689865 80.152977 
-61.526154 -29.289829 44.977089 
-51.975662 -132.711700 248.639709 
-56.975246 -121.259476 177.180542 
31.899126 -4.596096 89.862061 
-41.724667 -162.760880 200.607620 
39.283054 -8.265201 264.004303 
34.452644 -162.240051 275.483917 
7.868774 -119.872139 57.635700 
-59.108364 -71.711876 151.762390 
72.747887 -68.456230 276.105438 
2.191509 -173.836273 190.003433 
87.921585 -84.251938 148.898621 
85.486214 -98.808540 178.565460 
-63.676693 -70.903046 150.425476 
43.434429 -107.222298 73.330818 
9.935796 -199.334045 144.869278 
45.334206 -175.408340 187.198288 
-35.125294 -135.983429 92.094452 
84.235878 -7.425306 27.450003 
-7.241952 -177.286697 255.658661 
30.220772 -186.345657 148.180664 
-61.105724 -92.470238 141.658310 
21.661137 -123.957275 64.825073 
57.909599 12.661220 28.520376 
39.286343 -173.165268 259.050232 
44.304016 -109.620934 76.846657 
-57.774532 -97.620354 144.673553 
-4.016744 -175.841888 199.364044 
-37.870193 -136.728973 99.643036 
63.439014 -165.830521 169.871613 
75.978195 -98.283928 139.530029 
-29.445866 -163.901321 258.791504 
50.379868 -96.691078 71.318527 
21.098166 24.967857 26.707787 
-46.586430 -80.135979 45.907162 
-8.542287 -84.789513 302.083191 
15.109703 -210.199966 153.223221 
8.694728 -126.414200 65.958397 
-32.156898 -126.235313 284.808899 
63.647686 -47.020100 108.737526 
26.917732 -2.946638 176.149033 
6.163202 -197.444580 172.134720 
-18.827368 -129.324219 78.149078 
54.756374 -80.291817 292.637390 
11.220804 5.916556 197.025421 
80.143845 -35.285763 221.095215 
67.291351 -163.470459 196.058624 
68.520660 -155.361176 152.184937 
-16.549677 -11.058110 153.442917 
56.330681 -111.272255 91.450363 
84.602707 -118.362343 174.966660 
40.948761 -9.739801 88.532433 
84.167213 -89.052773 160.467133 
54.451038 -181.304840 210.727646 
36.111538 -165.323486 76.993279 
40.665699 -179.855087 241.075409 
-71.962883 -72.749054 186.388168 
-67.920418 -77.633896 158.275391 
13.651091 -187.924225 198.892334 
-59.733791 -80.598625 162.959061 
61.332298 -165.597702 188.416885 
-53.440708 -135.508484 229.453491 
45.926975 -84.766502 297.534668 
-24.623657 -103.966179 20.464279 
-33.553745 16.945137 23.853365 
74.792343 -28.119638 239.351517 
-41.759846 -160.174255 234.966064 
-45.513126 -43.875355 94.345703 
3.330666 -5.872064 157.656799 
-6.807046 -188.174759 210.325668 
-45.059818 -48.105385 106.721405 
46.975506 -180.315704 201.305466 
63.274853 -65.826477 286.286072 
1.639212 -178.119492 257.232666 
73.259987 -24.468544 231.546494 
70.260490 -23.012388 204.238770 
-41.112442 -16.846685 243.718796 
75.381050 -102.243088 138.212341 
8.249976 -200.712387 172.199478 
-18.660238 -5.760059 89.887665 
60.832825 -135.114700 93.239616 
0.535649 -198.877167 155.564529 
-63.919292 -69.533005 24.357267 
-8.533115 -101.214890 300.920746 
-2.937292 18.612989 42.764236 
24.536421 -195.894104 147.696915 
-49.353657 -23.130020 225.706879 
-42.035469 -14.133686 223.916809 
-78.130272 -32.527020 22.538609 
47.040527 -12.241217 175.084808 
64.778603 -144.079437 265.822021 
-35.691994 -46.490669 281.822021 
3.464092 -5.099761 111.695969 
75.010551 -148.998138 164.479599 
6.875331 -179.305710 76.520294 
78.147926 -35.746162 202.379364 
-6.874661 -5.384540 103.083519 
55.456425 -89.784027 65.725243 
65.992973 -51.323940 128.078003 
90.294762 -76.226952 155.708344 
-69.963631 -85.520432 188.806335 
41.842045 -161.050507 80.583038 
20.897743 -127.517639 67.387337 
-38.351120 -93.072647 36.048576 
-61.702801 -61.294010 238.470642 
-42.174080 -112.711235 102.535522 
19.199629 -201.133423 168.169540 
-63.666218 -61.165966 184.604782 
-53.703815 -33.447327 57.936466 
-35.288857 -160.262863 255.454147 
-41.668911 -87.685005 43.501060 
-59.581047 -101.284286 218.564545 
74.280167 -82.014847 273.997986 
73.193962 -145.476151 245.687027 
-0.260571 -188.861053 123.085114 
29.212902 -191.975693 147.563583 
-25.412270 -164.783524 127.879814 
35.936459 -1.904220 253.272751 
10.695590 -191.535080 118.999550 
-32.823238 -108.325478 92.074203 
-39.018902 -87.498909 285.715820 
-72.373489 -75.989258 175.226913 
36.793056 -111.974045 66.092445 
81.851265 -82.969940 140.842667 
-61.034317 -89.066399 171.528854 
88.816681 -87.681053 182.253220 
-3.630949 -175.596268 178.634750 
32.392269 -177.112274 94.572372 
2.204175 -181.227432 180.787140 
55.725632 -0.449946 45.963188 
-39.769699 -32.798038 147.262756 
-73.483238 -52.778358 26.781324 
-37.879414 -31.005386 139.175232 
85.405014 -51.140270 214.560623 
-18.461088 -106.797165 20.464279 
-9.415896 -173.298157 85.507462 
13.379232 -205.752594 166.654465 
-2.129000 -180.286011 173.912506 
53.655296 -6.501991 211.485825 
-68.080750 -14.165460 31.316887 
44.531452 -142.545700 78.881332 
29.151655 -174.499405 196.399567 
49.232246 -132.092041 285.937622 
-33.824650 -25.016420 139.787231 
84.327805 -60.596573 174.391891 
83.743683 -75.385857 145.571640 
22.537111 -7.602151 120.190567 
19.224056 -187.591125 198.913177 
60.127228 -32.180874 76.767410 
68.375664 -61.495815 280.535492 
-46.022255 -84.815720 36.144592 
61.460125 -85.739029 93.866074 
-2.655756 -8.297419 134.835098 
-35.529926 4.035945 46.724602 
-65.943268 -81.406143 182.522736 
-46.714985 -53.027309 92.984489 
-45.711662 -55.775818 116.661987 
23.570547 -23.112848 286.234009 
21.257215 -205.783173 152.092728 
-4.113928 4.271271 242.355255 
68.033409 -68.315575 123.427856 
-57.020218 -41.899818 239.351807 
14.549692 -161.193115 279.539856 
-5.425835 6.212681 206.355942 
70.819115 5.428773 25.172014 
-56.413467 -121.631943 231.493668 
26.718395 -195.675079 147.799103 
17.689863 -120.374649 57.034840 
-34.348583 -161.152710 143.149689 
54.601738 -177.251068 197.055771 
74.057739 -78.532135 146.715546 
-12.429435 -113.292389 66.950043 
4.853215 -189.112762 207.221588 
12.500543 -5.466038 114.501671 
74.629257 -117.688148 264.487579 
60.846813 -19.423115 185.312042 
58.873283 -11.677705 204.821930 
-39.425735 -127.386154 95.962227 
63.364735 -80.228928 52.663620 
48.314545 -13.745432 79.171883 
9.351677 -194.722366 135.786697 
44.733269 -35.090633 287.601196 
59.138046 -5.005031 47.558136 
-2.731668 3.410632 191.427338 
97.511742 -72.881477 188.855667 
54.013008 -172.492294 186.075790 
-60.790730 -83.421310 172.938065 
29.755663 -184.277985 162.259827 
-9.357023 -7.764300 113.585289 
83.808960 -51.530476 37.701294 
62.045773 -10.134098 49.562134 
26.619053 -186.887314 144.169144 
67.943970 -81.819832 36.762478 
44.151138 -8.761822 77.595978 
3.098381 -122.840134 64.592239 
34.001926 23.507797 22.909351 
17.498156 -186.075821 229.573257 
75.435776 -60.253197 46.094830 
-61.602631 -61.735752 192.376755 
10.840379 -195.515366 125.544044 
54.361443 -28.175243 100.007172 
25.824837 -176.155884 195.166779 
82.305634 -81.529831 171.556671 
83.843613 -76.851387 167.285660 
14.383412 -122.243744 60.631641 
60.017284 9.304726 31.520306 
-76.604340 -32.939396 27.877535 
37.786991 -130.394257 292.430939 
-25.585175 -71.543701 295.121368 
-59.934395 -98.187126 171.798080 
23.497082 3.934282 243.553955 
-60.793217 -51.708569 203.897324 
-52.510872 -121.909698 140.786850 
-7.725685 -172.507355 192.779419 
-41.948441 -40.664162 128.143265 
44.352341 -0.123192 220.874741 
0.512484 -181.299377 248.547714 
88.356819 -9.650818 20.464279 
36.064396 1.628077 203.978653 
-18.304350 -121.022697 77.024071 
-33.534111 -162.260590 188.859741 
-31.238037 -143.841324 90.624710 
46.300404 -18.611774 149.531784 
14.453017 -9.528143 273.527557 
91.587509 -20.475998 29.262793 
92.428116 -60.538391 162.647568 
26.204599 -188.617264 134.289688 
-36.034782 -28.579102 130.111908 
45.883026 17.891359 30.043247 
13.313796 -197.014847 139.910095 
14.054972 -188.866135 191.804001 
8.233359 -206.112717 163.404236 
28.557154 -169.581253 73.602669 
-10.143061 -110.235886 49.387764 
-26.951756 -4.334746 239.389908 
-36.414974 -103.490936 98.526848 
-39.987839 -93.685303 25.623817 
-45.947418 -88.556122 25.172340 
-73.410500 -63.007301 181.502121 
-22.823830 -170.587311 175.149948 
-7.422617 -139.829208 291.151520 
28.299290 -188.786072 123.233032 
50.641830 -179.140106 197.073410 
81.334282 -139.281494 177.334808 
58.962337 -9.391728 230.609467 
84.124580 -49.570721 205.035461 
-53.458122 -30.333941 208.095840 
-57.434166 -67.134392 160.800369 
68.271179 -161.337463 168.399841 
62.909042 -15.174772 204.681870 
83.760933 -51.811779 243.755798 
-63.010830 -62.048256 222.064331 
-44.970867 -118.941116 274.382477 
18.514341 -111.398674 20.464279 
-71.326622 -65.328354 178.755936 
-1.205745 -64.028442 302.662506 
-61.504410 -63.896461 159.145477 
-56.093185 -34.712273 221.876541 
65.782547 -55.823128 76.988617 
50.329494 5.600792 43.876553 
40.274857 -105.841789 58.569824 
-43.322433 -37.838318 99.669182 
-61.642376 -78.758392 144.540497 
84.350777 -81.235718 174.658966 
-41.799137 8.775708 33.139828 
82.633186 -83.326828 172.293884 
29.952810 -182.579208 165.971466 
33.693844 -148.972992 285.369080 
-55.221870 -12.656680 44.585602 
56.441956 -27.230227 82.762436 
-38.129971 -168.254303 202.760452 
72.522552 4.725317 22.525738 
22.141066 -191.650330 147.820221 
38.321392 -170.142075 85.369408 
78.782700 -89.655769 139.115799 
-17.066011 -185.650543 212.089096 
41.971806 -105.113441 64.320778 
-75.399765 -45.920830 27.663502 
40.169331 -187.915848 207.865479 
19.807859 -192.033707 148.184708 
36.729881 -34.577290 290.916168 
-76.254471 -46.585274 20.464279 
66.039459 -60.996433 100.071716 
-32.533157 -104.995506 91.712852 
69.649933 -37.191101 57.607044 
-1.855397 0.629886 84.227440 
-10.292928 -184.205032 227.410431 
18.452347 -194.932022 140.866791 
31.191818 -11.312634 132.568848 
-64.689346 -82.763641 145.855865 
94.486610 -81.110985 193.310089 
6.077083 -186.332108 226.911682 
44.861675 -51.650116 295.261475 
-35.531776 -119.772057 283.997284 
69.028961 -44.350746 272.963440 
-10.579311 0.659157 189.339691 
-48.069424 -55.330406 81.524643 
85.164108 -103.155518 180.859619 
31.534363 -178.126251 199.876556 
18.711908 -114.542007 300.905518 
-28.610571 -8.642309 249.838150 
58.657276 -10.653927 54.602276 
-35.659832 -100.087227 97.118240 
68.676544 -20.297302 207.771393 
97.336639 -69.867371 187.027161 
-76.394630 -40.183701 27.702072 
-35.963234 -93.498055 52.708477 
97.302597 -67.778297 189.189056 
70.787849 -137.394760 131.958069 
-65.799194 -68.647034 153.067978 
69.028870 -86.557709 136.128220 
13.077368 -34.013302 293.758331 
12.630426 -134.822906 295.832428 
-4.551550 -7.087821 267.316376 
64.537201 -163.974930 191.484802 
-76.413841 -23.277069 24.997721 
30.534065 4.947084 211.894913 
-12.003309 4.472716 209.465408 
71.653816 -20.892424 46.841274 
52.929482 -151.335770 91.295586 
-67.643806 -69.924797 154.759201 
-37.819580 -169.420456 208.675797 
33.024830 -174.186142 261.080933 
84.554092 -58.033844 189.959167 
70.177979 -158.969513 191.053589 
24.297230 -130.948868 69.830383 
-53.156406 -137.857330 212.324615 
-0.840605 -195.039291 155.691360 
-59.681000 -101.179413 232.852966 
86.206184 -60.148621 181.240295 
67.957329 -42.262081 160.854370 
63.451931 -133.782852 274.008514 
-7.250386 -188.018387 214.326248 
-4.387395 -142.995087 72.903671 
-47.785099 -67.430458 70.680199 
-50.273163 -108.189148 124.391518 
52.036343 -103.900490 86.235130 
12.019601 -4.691147 266.910370 
8.563623 4.029671 189.965607 
48.811100 -174.137985 165.561798 
-16.719538 -173.082321 133.413513 
-25.853420 -175.323196 199.118576 
63.143185 -25.113159 262.851990 
84.266464 -83.601738 179.859634 
32.983273 -69.037544 302.575439 
30.810240 -173.890213 185.281586 
24.437834 0.805200 81.008148 
-39.882877 -93.887123 105.806114 
72.593491 -70.090004 44.115185 
90.493294 -84.905266 192.857681 
60.068710 -86.068573 46.847187 
-29.934656 -140.101578 86.197525 
46.453175 -71.328819 297.677948 
-63.703571 -64.332062 156.467209 
63.547215 -152.455368 132.394165 
-43.058338 -84.299271 281.627991 
56.186974 -170.725479 161.925400 
28.884840 -174.430649 76.154564 
59.633129 -157.325562 130.584457 
33.958496 -0.861272 190.038361 
-36.050014 -164.883118 242.855453 
-30.764423 -13.303960 256.538635 
-69.871414 -79.233330 186.124664 
10.561520 24.236017 30.704390 
-5.347527 -160.609741 278.060333 
-53.351269 -86.736931 142.243042 
-44.215019 -147.513260 255.726654 
-46.569267 -152.102707 184.143265 
22.025133 -191.097992 139.249252 
34.595142 -185.554443 224.835556 
-40.690899 -113.789764 280.765533 
-50.908630 -72.770927 45.334232 
14.658482 -137.501740 70.224350 
60.196083 -175.903076 205.697296 
-40.242462 -96.178490 106.708618 
-0.614316 -173.301956 185.290634 
17.587515 -191.972534 115.986511 
-54.173122 -80.364525 23.427237 
-49.492363 -73.539864 147.417450 
-65.738174 -60.602627 161.195541 
50.892078 -172.332565 174.966019 
-2.545746 -193.673416 147.560471 
-61.241337 -92.931778 148.522018 
31.692516 -8.572197 106.426331 
-46.107769 -18.959442 214.507065 
-46.802898 -75.270302 57.677963 
26.751684 -184.313675 103.990028 
21.978191 -16.958820 281.043945 
73.473480 -81.506516 20.464279 
65.855675 -39.541309 66.766426 
80.399673 -81.677032 158.324219 
65.006447 -51.624325 107.840508 
-40.556316 -38.816124 272.507507 
-59.745972 -61.599613 172.264267 
12.763723 -195.582428 135.367813 
25.787527 -114.992645 47.992867 
86.737411 -89.506287 176.881577 
5.068658 -205.878311 149.800705 
-14.169874 -109.023048 58.665852 
-18.991547 -106.802109 65.271965 
41.802795 -179.976318 201.240707 
-64.355965 -85.459099 148.104370 
65.822189 -73.563965 60.604694 
-33.684265 -9.524386 241.918243 
6.424914 -192.007324 145.028885 
78.054420 -82.559669 143.923431 
-60.609989 -21.451700 43.803028 
58.991131 -91.552666 93.163139 
68.953209 -158.980881 237.787247 
-21.650297 -14.181858 145.904404 
94.428177 -61.828934 185.513565 
6.226625 8.524083 211.375504 
82.385162 -90.278481 139.307770 
-3.936282 -56.787857 300.963623 
-54.189255 -58.396984 51.927757 
31.183664 -10.591634 122.426147 
61.942223 -161.075104 143.704163 
50.509308 -179.871094 201.888657 
-25.741930 -1.910015 214.888153 
10.369848 -123.470268 62.913029 
74.834259 -78.106537 30.063314 
29.111492 -189.066895 214.381989 
-63.558842 -76.655853 195.161255 
23.852400 -190.528168 110.430206 
-34.227257 -30.864405 273.624451 
21.696354 -192.354889 112.940323 
28.614597 -173.830521 188.012299 
-33.757420 -174.076019 206.225525 
-57.232819 -102.301743 158.211105 
88.468147 -88.801086 190.857697 
50.349895 -160.112122 103.371765 
-36.176579 -136.558807 277.343048 
-61.496761 -52.158531 228.587646 
83.806664 -59.942890 249.068893 
-62.058208 -92.880089 176.215591 
55.489769 14.780121 20.464279 
-3.148586 -186.739700 153.729523 
-49.249332 4.797526 31.380859 
61.958523 -32.969627 159.233246 
86.144501 -53.870293 222.090576 
-54.380260 -51.237289 55.375942 
-43.895405 -21.383684 192.130112 
38.016502 -178.537643 121.381645 
4.581863 -191.427490 115.151299 
16.069731 9.142030 62.727371 
60.503441 -94.027328 99.636353 
94.334061 -66.420036 164.489548 
-14.435047 -162.396820 78.660286 
8.186639 -187.018478 197.833298 
56.560970 -25.635782 159.937164 
15.885530 -145.990341 71.224190 
18.319572 -190.651337 185.754807 
52.958824 -7.324282 204.815613 
36.853882 -11.658753 108.067429 
-62.107567 -79.433281 167.909683 
-71.886261 -60.761589 186.605682 
77.028625 -149.547775 195.812088 
30.943338 20.447805 34.216156 
80.154968 -98.800049 153.098618 
90.912315 -34.880032 32.788418 
26.888712 -187.590057 119.250366 
-30.136301 -20.694702 123.750702 
39.142284 -174.213165 111.463943 
-76.176582 -26.338659 27.272453 
-26.323801 -168.781998 181.047104 
-60.474468 -44.506222 45.939739 
86.287804 -86.661186 206.907166 
-49.325382 -88.328171 133.082581 
81.752808 -116.347649 233.984680 
66.382675 -90.561943 120.664299 
19.834076 -45.724312 299.257172 
-59.644821 -93.562424 158.027176 
-27.737333 -16.664000 112.740746 
-73.461037 -18.817049 27.399525 
-59.305050 -86.258766 168.028656 
-18.074938 -12.688257 134.640366 
46.023674 -169.297180 121.117821 
96.635368 -71.267632 172.689102 
88.874359 -76.453796 171.207504 
-23.355303 -172.836060 153.663803 
-41.876827 -34.815880 267.901978 
8.265057 -195.314331 179.485657 
-65.752419 -74.024849 150.034714 
-52.716751 -36.475834 189.502365 
-67.191711 -8.657827 27.282602 
-51.252735 -79.262032 146.839417 
24.385216 -9.139116 140.602783 
71.118462 -103.621483 275.302551 
74.737724 -145.928177 238.348282 
53.896126 -16.977655 175.639023 
70.242310 -82.138458 140.260422 
45.239021 -0.627122 231.450638 
82.567230 -92.966263 149.305359 
2.290882 -3.663213 103.233528 
-1.735038 -181.302551 199.843704 
86.066841 -80.234291 225.356003 
85.418884 -51.846313 232.011826 
-69.787407 -75.894341 194.560333 
-34.510235 -156.221771 262.784393 
63.253883 -88.842270 107.156326 
-18.682570 -177.973114 201.512985 
0.892938 -186.797577 119.018784 
-65.052544 -83.059433 155.721283 
62.257622 -173.304352 210.985596 
-58.570137 -2.181987 30.550308 
53.770706 -46.921803 288.278442 
74.058296 -93.259415 139.564194 
30.991537 -54.343212 300.804901 
12.383620 -176.776245 260.543732 
-41.071606 -13.729656 211.714462 
50.638908 -24.963976 114.654930 
60.840481 -82.220345 68.721992 
61.854691 -125.608910 93.378700 
-17.677465 -147.993454 77.585114 
-15.698749 -30.434072 285.839874 
-38.613960 -20.017550 84.645905 
85.671768 -76.131256 163.791946 
-73.795601 -17.826607 20.464279 
-59.431801 -81.948631 142.695984 
4.918304 8.744922 218.338608 
-24.861727 -172.496765 159.067764 
75.382767 -105.137962 267.920715 
-14.080630 -110.500381 64.410820 
-17.572708 -140.590820 287.317047 
-63.079830 -58.457466 36.620335 
-3.123254 7.184880 226.570236 
-13.501106 -173.965759 173.957031 
65.565178 -69.868988 74.223595 
9.269378 -205.966751 146.769196 
-38.680500 -164.485962 233.649750 
23.882339 -184.238693 101.011833 
73.324379 -28.332472 200.866043 
-2.670063 -183.440704 118.891670 
-41.041065 -14.234942 234.331863 
35.460415 -82.022789 301.880127 
-7.840984 -177.777435 117.499207 
52.680790 -155.888489 270.006012 
-37.237438 -38.927483 276.378357 
-19.365538 -107.388618 296.407104 
-61.975773 -73.262955 241.224777 
-57.460407 -94.673050 141.065826 
-69.815842 -60.925713 20.464279 
37.002056 -106.904465 20.464279 
7.704354 -193.996307 138.012650 
-65.509476 -78.300392 148.629715 
77.705582 -95.342224 265.513702 
63.291637 -13.602374 235.337296 
-31.745556 -20.758692 152.229492 
-46.050575 -153.918457 229.512253 
-4.320661 -36.110680 292.909363 
25.369511 -150.553680 286.815308 
51.047745 -31.499313 281.316742 
73.853630 -154.850708 184.618530 
72.343071 -64.117104 149.924713 
23.430882 13.134291 51.610416 
37.810276 -62.944466 300.767212 
60.544369 -87.696342 40.843643 
-61.486717 -67.444946 154.284637 
-45.426109 -74.876709 120.248177 
35.126331 -173.781677 188.369278 
74.706932 -35.149036 254.577881 
-62.786823 -76.063393 197.480698 
-61.928513 -53.908161 215.177155 
-17.062670 -19.003473 275.749390 
-50.166569 -108.474831 269.217712 
20.123684 -190.170410 145.470215 
89.171150 -61.241592 183.589096 
15.813114 -1.985207 96.310730 
47.273006 -102.554092 20.464279 
-13.200793 -68.056686 300.342712 
27.203510 -79.289841 303.826538 
-60.937145 -59.344986 192.021057 
23.014599 -181.508224 82.852432 
-29.536997 -4.188728 227.508316 
38.632072 -132.879898 76.027374 
-61.597290 -85.085091 141.653687 
-40.139488 -90.593468 104.218925 
64.456558 -162.523315 153.510117 
48.172440 -19.302176 96.921295 
-48.887016 -27.585117 244.269653 
-69.110458 -59.280857 185.451859 
64.107765 -90.767143 111.232857 
66.680489 -128.718689 101.769882 
2.572491 -181.736221 196.241989 
1.544958 -187.795486 140.895447 
3.217282 8.223032 226.410370 
79.670822 -36.443447 238.210236 
51.230427 -3.191994 55.063572 
83.873383 -127.910332 174.086334 
47.886944 -182.277130 204.192352 
0.200457 -134.410233 295.102844 
52.718121 -137.927856 281.067322 
-2.647736 -180.230545 99.646133 
-9.727218 -118.500183 297.716858 
-46.192654 -66.390434 276.149445 
43.349209 -161.294098 271.974518 
61.530285 -41.799503 110.542618 
-25.972330 -155.278015 94.022934 
57.540318 -63.202469 290.378937 
23.549080 7.958119 62.705997 
2.911399 -187.330307 173.848434 
24.435101 -53.147743 301.447998 
18.971666 -83.628212 304.570801 
-42.283581 -18.791601 72.065102 
48.938389 -159.015732 93.286507 
-69.756371 -57.598000 174.288834 
-60.456852 -60.958893 184.412781 
-57.179276 -58.791573 176.110397 
28.735146 -192.586105 153.169373 
-59.844757 -75.312057 250.306549 
-39.488613 -17.299519 248.943298 
-0.818495 -121.930901 298.995056 
71.187019 -105.460464 120.103409 
-18.162605 2.156500 214.517075 
49.302483 -15.632864 266.415771 
17.661474 -208.647751 150.450699 
-61.281483 -92.927078 154.714767 
66.938484 -142.673615 125.779625 
-35.168297 -13.314663 189.720291 
70.858322 -159.868607 202.560242 
86.852905 -13.489869 29.816805 
26.731104 -109.848412 20.464279 
33.549973 -122.553680 70.873428 
0.596225 -156.123337 282.869171 
-43.241226 -143.757813 262.973389 
5.679881 -205.658096 159.823517 
-69.693893 -69.448036 163.116837 
-29.800861 -169.313431 165.192749 
-39.513344 -34.813644 127.834488 
6.189199 26.325241 20.464279 
-59.509785 -60.779846 181.144608 
58.984467 -167.830292 153.802200 
56.073685 -175.159042 194.913727 
38.396095 1.861969 235.756424 
59.602707 -31.469076 273.959076 
28.803289 -128.937469 295.959320 
-29.492531 -19.951775 143.300003 
-12.298515 23.682297 20.464279 
78.094971 -100.779099 144.649017 
-63.255520 -92.021622 187.871277 
22.860289 -189.849686 119.304604 
-26.059525 -25.688166 276.292969 
88.352501 -66.266815 153.118881 
76.254692 -33.073746 246.347641 
-25.747883 -39.101696 285.736969 
32.088886 -11.359362 144.185440 
81.425049 -56.323616 178.647583 
57.002899 -128.013382 88.470253 
4.201708 -190.273621 145.260178 
-18.629917 -176.912720 199.220871 
57.639851 -155.516922 265.304260 
-52.787952 -85.598770 267.598846 
82.112328 -64.209976 165.095291 
51.617683 -11.071891 256.441864 
81.862640 -91.530121 156.344864 
76.164345 -93.418808 139.558640 
54.736492 -93.645317 82.777046 
86.717781 -59.370258 228.003113 
-24.623657 20.388573 20.464279 
42.205193 -13.821823 159.393112 
62.147530 -82.302536 86.793015 
1.023170 -69.990982 303.620789 
9.534857 -195.715714 141.170212 
-16.102606 -118.558228 74.653381 
70.661842 -152.246872 244.676514 
60.037083 -107.970428 97.121643 
22.073490 -155.941376 283.532745 
58.820343 -136.312744 277.151672 
-18.921055 -166.634506 265.451324 
-45.944824 -74.080223 72.203613 
-47.828053 -56.227173 150.756165 
35.310799 -173.573868 193.049667 
-31.906712 -17.863356 101.009895 
-29.609995 -105.897415 86.526489 
-25.511118 -19.506868 270.573334 
77.873840 -76.093246 150.513809 
2.843739 -186.758377 107.552139 
-43.164429 -139.978012 126.089088 
86.802673 -80.675415 154.748825 
-2.907005 -193.421631 149.739075 
-18.293945 -106.391006 45.603973 
-27.658720 -15.578691 263.755432 
-0.933472 -179.009918 81.130653 
3.776233 -119.385368 59.307133 
-28.424402 -16.730413 158.149918 
-20.083427 -24.337736 278.951141 
-51.187992 -79.802162 33.487114 
13.141141 -120.376266 57.008053 
-41.743362 -67.522125 281.889221 
-16.166332 -112.076599 70.725456 
-57.128754 -24.962519 49.373844 
-44.975609 -51.808422 132.480209 
26.890026 -190.716492 145.826859 
89.225456 -76.663490 157.507523 
32.982258 -172.930634 190.486496 
-62.291779 -66.401894 195.042877 
66.068008 -73.039551 102.703117 
71.638107 -88.057549 139.928589 
-73.290482 -44.263626 31.292959 
14.470135 -124.689171 299.037964 
-59.621418 -89.136749 158.268448 
0.018646 -176.001373 197.106079 
-52.237980 -140.615891 174.727570 
36.948997 -179.284317 246.588104 
95.828255 -20.964600 22.576401 
69.588280 -146.836029 141.774597 
-14.381483 -133.499390 291.686981 
40.219540 1.897888 225.473282 
40.542053 -12.887770 101.124191 
-56.154976 -55.203777 254.037674 
22.110828 -181.539597 247.657013 
-32.083096 -23.502623 268.957458 
-7.881655 -134.695206 73.798531 
-53.339180 -78.284416 149.179245 
-58.015965 -8.831861 37.931316 
80.192131 -41.179955 43.108036 
80.123840 -62.387287 38.173935 
-26.967274 -107.582260 292.633301 
30.098709 -17.738188 280.135681 
-30.994026 -98.959038 39.352604 
